 9.09660000 21.22540000  9.09660000  3.00000000
 9.09660000 21.22540000 33.35420000  3.00000000
 9.09660000 45.48300000  9.09660000  3.00000000
 9.09660000 45.48300000 33.35420000  3.00000000
33.35420000 21.22540000  9.09660000  3.00000000
33.35420000 21.22540000 33.35420000  3.00000000
33.35420000 45.48300000  9.09660000  3.00000000
33.35420000 45.48300000 33.35420000  3.00000000
21.22540000 21.22540000 21.22540000  3.00000000
21.22540000 21.22540000 45.48300000  3.00000000
21.22540000 45.48300000 21.22540000  3.00000000
21.22540000 45.48300000 45.48300000  3.00000000
45.48300000 21.22540000 21.22540000  3.00000000
45.48300000 21.22540000 45.48300000  3.00000000
45.48300000 45.48300000 21.22540000  3.00000000
45.48300000 45.48300000 45.48300000  3.00000000
 9.09660000  9.09660000 21.22540000  3.00000000
 9.09660000  9.09660000 45.48300000  3.00000000
 9.09660000 33.35420000 21.22540000  3.00000000
 9.09660000 33.35420000 45.48300000  3.00000000
33.35420000  9.09660000 21.22540000  3.00000000
33.35420000  9.09660000 45.48300000  3.00000000
33.35420000 33.35420000 21.22540000  3.00000000
33.35420000 33.35420000 45.48300000  3.00000000
21.22540000  9.09660000  9.09660000  3.00000000
21.22540000  9.09660000 33.35420000  3.00000000
21.22540000 33.35420000  9.09660000  3.00000000
21.22540000 33.35420000 33.35420000  3.00000000
45.48300000  9.09660000  9.09660000  3.00000000
45.48300000  9.09660000 33.35420000  3.00000000
45.48300000 33.35420000  9.09660000  3.00000000
45.48300000 33.35420000 33.35420000  3.00000000
15.16100000  3.03220000 15.16100000  3.00000000
15.16100000  3.03220000 39.41860000  3.00000000
15.16100000 27.28980000 15.16100000  3.00000000
15.16100000 27.28980000 39.41860000  3.00000000
39.41860000  3.03220000 15.16100000  3.00000000
39.41860000  3.03220000 39.41860000  3.00000000
39.41860000 27.28980000 15.16100000  3.00000000
39.41860000 27.28980000 39.41860000  3.00000000
 3.03220000  3.03220000  3.03220000  3.00000000
 3.03220000  3.03220000 27.28980000  3.00000000
 3.03220000 27.28980000  3.03220000  3.00000000
 3.03220000 27.28980000 27.28980000  3.00000000
27.28980000  3.03220000  3.03220000  3.00000000
27.28980000  3.03220000 27.28980000  3.00000000
27.28980000 27.28980000  3.03220000  3.00000000
27.28980000 27.28980000 27.28980000  3.00000000
15.16100000 15.16100000  3.03220000  3.00000000
15.16100000 15.16100000 27.28980000  3.00000000
15.16100000 39.41860000  3.03220000  3.00000000
15.16100000 39.41860000 27.28980000  3.00000000
39.41860000 15.16100000  3.03220000  3.00000000
39.41860000 15.16100000 27.28980000  3.00000000
39.41860000 39.41860000  3.03220000  3.00000000
39.41860000 39.41860000 27.28980000  3.00000000
 3.03220000 15.16100000 15.16100000  3.00000000
 3.03220000 15.16100000 39.41860000  3.00000000
 3.03220000 39.41860000 15.16100000  3.00000000
 3.03220000 39.41860000 39.41860000  3.00000000
27.28980000 15.16100000 15.16100000  3.00000000
27.28980000 15.16100000 39.41860000  3.00000000
27.28980000 39.41860000 15.16100000  3.00000000
27.28980000 39.41860000 39.41860000  3.00000000
 0.00000000  0.00000000  0.00000000  1.00000000
 0.00000000  0.00000000 24.25760000  1.00000000
 0.00000000 24.25760000  0.00000000  1.00000000
 0.00000000 24.25760000 24.25760000  1.00000000
24.25760000  0.00000000  0.00000000  1.00000000
24.25760000  0.00000000 24.25760000  1.00000000
24.25760000 24.25760000  0.00000000  1.00000000
24.25760000 24.25760000 24.25760000  1.00000000
 6.06440000  6.06440000  0.00000000  1.00000000
 6.06440000  6.06440000 24.25760000  1.00000000
 6.06440000 30.32200000  0.00000000  1.00000000
 6.06440000 30.32200000 24.25760000  1.00000000
30.32200000  6.06440000  0.00000000  1.00000000
30.32200000  6.06440000 24.25760000  1.00000000
30.32200000 30.32200000  0.00000000  1.00000000
30.32200000 30.32200000 24.25760000  1.00000000
12.12880000 12.12880000  0.00000000  1.00000000
12.12880000 12.12880000 24.25760000  1.00000000
12.12880000 36.38640000  0.00000000  1.00000000
12.12880000 36.38640000 24.25760000  1.00000000
36.38640000 12.12880000  0.00000000  1.00000000
36.38640000 12.12880000 24.25760000  1.00000000
36.38640000 36.38640000  0.00000000  1.00000000
36.38640000 36.38640000 24.25760000  1.00000000
18.19320000 18.19320000  0.00000000  1.00000000
18.19320000 18.19320000 24.25760000  1.00000000
18.19320000 42.45080000  0.00000000  1.00000000
18.19320000 42.45080000 24.25760000  1.00000000
42.45080000 18.19320000  0.00000000  1.00000000
42.45080000 18.19320000 24.25760000  1.00000000
42.45080000 42.45080000  0.00000000  1.00000000
42.45080000 42.45080000 24.25760000  1.00000000
 6.06440000  0.00000000  6.06440000  1.00000000
 6.06440000  0.00000000 30.32200000  1.00000000
 6.06440000 24.25760000  6.06440000  1.00000000
 6.06440000 24.25760000 30.32200000  1.00000000
30.32200000  0.00000000  6.06440000  1.00000000
30.32200000  0.00000000 30.32200000  1.00000000
30.32200000 24.25760000  6.06440000  1.00000000
30.32200000 24.25760000 30.32200000  1.00000000
12.12880000  0.00000000 12.12880000  1.00000000
12.12880000  0.00000000 36.38640000  1.00000000
12.12880000 24.25760000 12.12880000  1.00000000
12.12880000 24.25760000 36.38640000  1.00000000
36.38640000  0.00000000 12.12880000  1.00000000
36.38640000  0.00000000 36.38640000  1.00000000
36.38640000 24.25760000 12.12880000  1.00000000
36.38640000 24.25760000 36.38640000  1.00000000
18.19320000  0.00000000 18.19320000  1.00000000
18.19320000  0.00000000 42.45080000  1.00000000
18.19320000 24.25760000 18.19320000  1.00000000
18.19320000 24.25760000 42.45080000  1.00000000
42.45080000  0.00000000 18.19320000  1.00000000
42.45080000  0.00000000 42.45080000  1.00000000
42.45080000 24.25760000 18.19320000  1.00000000
42.45080000 24.25760000 42.45080000  1.00000000
 0.00000000  6.06440000  6.06440000  1.00000000
 0.00000000  6.06440000 30.32200000  1.00000000
 0.00000000 30.32200000  6.06440000  1.00000000
 0.00000000 30.32200000 30.32200000  1.00000000
24.25760000  6.06440000  6.06440000  1.00000000
24.25760000  6.06440000 30.32200000  1.00000000
24.25760000 30.32200000  6.06440000  1.00000000
24.25760000 30.32200000 30.32200000  1.00000000
 0.00000000 12.12880000 12.12880000  1.00000000
 0.00000000 12.12880000 36.38640000  1.00000000
 0.00000000 36.38640000 12.12880000  1.00000000
 0.00000000 36.38640000 36.38640000  1.00000000
24.25760000 12.12880000 12.12880000  1.00000000
24.25760000 12.12880000 36.38640000  1.00000000
24.25760000 36.38640000 12.12880000  1.00000000
24.25760000 36.38640000 36.38640000  1.00000000
 0.00000000 18.19320000 18.19320000  1.00000000
 0.00000000 18.19320000 42.45080000  1.00000000
 0.00000000 42.45080000 18.19320000  1.00000000
 0.00000000 42.45080000 42.45080000  1.00000000
24.25760000 18.19320000 18.19320000  1.00000000
24.25760000 18.19320000 42.45080000  1.00000000
24.25760000 42.45080000 18.19320000  1.00000000
24.25760000 42.45080000 42.45080000  1.00000000
12.12880000  6.06440000 18.19320000  1.00000000
12.12880000  6.06440000 42.45080000  1.00000000
12.12880000 30.32200000 18.19320000  1.00000000
12.12880000 30.32200000 42.45080000  1.00000000
36.38640000  6.06440000 18.19320000  1.00000000
36.38640000  6.06440000 42.45080000  1.00000000
36.38640000 30.32200000 18.19320000  1.00000000
36.38640000 30.32200000 42.45080000  1.00000000
12.12880000 18.19320000  6.06440000  1.00000000
12.12880000 18.19320000 30.32200000  1.00000000
12.12880000 42.45080000  6.06440000  1.00000000
12.12880000 42.45080000 30.32200000  1.00000000
36.38640000 18.19320000  6.06440000  1.00000000
36.38640000 18.19320000 30.32200000  1.00000000
36.38640000 42.45080000  6.06440000  1.00000000
36.38640000 42.45080000 30.32200000  1.00000000
18.19320000 12.12880000  6.06440000  1.00000000
18.19320000 12.12880000 30.32200000  1.00000000
18.19320000 36.38640000  6.06440000  1.00000000
18.19320000 36.38640000 30.32200000  1.00000000
42.45080000 12.12880000  6.06440000  1.00000000
42.45080000 12.12880000 30.32200000  1.00000000
42.45080000 36.38640000  6.06440000  1.00000000
42.45080000 36.38640000 30.32200000  1.00000000
 6.06440000 12.12880000 18.19320000  1.00000000
 6.06440000 12.12880000 42.45080000  1.00000000
 6.06440000 36.38640000 18.19320000  1.00000000
 6.06440000 36.38640000 42.45080000  1.00000000
30.32200000 12.12880000 18.19320000  1.00000000
30.32200000 12.12880000 42.45080000  1.00000000
30.32200000 36.38640000 18.19320000  1.00000000
30.32200000 36.38640000 42.45080000  1.00000000
 6.06440000 18.19320000 12.12880000  1.00000000
 6.06440000 18.19320000 36.38640000  1.00000000
 6.06440000 42.45080000 12.12880000  1.00000000
 6.06440000 42.45080000 36.38640000  1.00000000
30.32200000 18.19320000 12.12880000  1.00000000
30.32200000 18.19320000 36.38640000  1.00000000
30.32200000 42.45080000 12.12880000  1.00000000
30.32200000 42.45080000 36.38640000  1.00000000
18.19320000  6.06440000 12.12880000  1.00000000
18.19320000  6.06440000 36.38640000  1.00000000
18.19320000 30.32200000 12.12880000  1.00000000
18.19320000 30.32200000 36.38640000  1.00000000
42.45080000  6.06440000 12.12880000  1.00000000
42.45080000  6.06440000 36.38640000  1.00000000
42.45080000 30.32200000 12.12880000  1.00000000
42.45080000 30.32200000 36.38640000  1.00000000
22.99418300 22.99418300 19.45661700  0.50000000
22.99418300 22.99418300 43.71421700  0.50000000
22.99418300 47.25178300 19.45661700  0.50000000
22.99418300 47.25178300 43.71421700  0.50000000
47.25178300 22.99418300 19.45661700  0.50000000
47.25178300 22.99418300 43.71421700  0.50000000
47.25178300 47.25178300 19.45661700  0.50000000
47.25178300 47.25178300 43.71421700  0.50000000
19.45661700 19.45661700 19.45661700  0.50000000
19.45661700 19.45661700 43.71421700  0.50000000
19.45661700 43.71421700 19.45661700  0.50000000
19.45661700 43.71421700 43.71421700  0.50000000
43.71421700 19.45661700 19.45661700  0.50000000
43.71421700 19.45661700 43.71421700  0.50000000
43.71421700 43.71421700 19.45661700  0.50000000
43.71421700 43.71421700 43.71421700  0.50000000
19.45661700 22.99418300 22.99418300  0.50000000
19.45661700 22.99418300 47.25178300  0.50000000
19.45661700 47.25178300 22.99418300  0.50000000
19.45661700 47.25178300 47.25178300  0.50000000
43.71421700 22.99418300 22.99418300  0.50000000
43.71421700 22.99418300 47.25178300  0.50000000
43.71421700 47.25178300 22.99418300  0.50000000
43.71421700 47.25178300 47.25178300  0.50000000
22.99418300 19.45661700 22.99418300  0.50000000
22.99418300 19.45661700 47.25178300  0.50000000
22.99418300 43.71421700 22.99418300  0.50000000
22.99418300 43.71421700 47.25178300  0.50000000
47.25178300 19.45661700 22.99418300  0.50000000
47.25178300 19.45661700 47.25178300  0.50000000
47.25178300 43.71421700 22.99418300  0.50000000
47.25178300 43.71421700 47.25178300  0.50000000
10.86538300 10.86538300 19.45661700  0.50000000
10.86538300 10.86538300 43.71421700  0.50000000
10.86538300 35.12298300 19.45661700  0.50000000
10.86538300 35.12298300 43.71421700  0.50000000
35.12298300 10.86538300 19.45661700  0.50000000
35.12298300 10.86538300 43.71421700  0.50000000
35.12298300 35.12298300 19.45661700  0.50000000
35.12298300 35.12298300 43.71421700  0.50000000
 7.32781700  7.32781700 19.45661700  0.50000000
 7.32781700  7.32781700 43.71421700  0.50000000
 7.32781700 31.58541700 19.45661700  0.50000000
 7.32781700 31.58541700 43.71421700  0.50000000
31.58541700  7.32781700 19.45661700  0.50000000
31.58541700  7.32781700 43.71421700  0.50000000
31.58541700 31.58541700 19.45661700  0.50000000
31.58541700 31.58541700 43.71421700  0.50000000
 7.32781700 10.86538300 22.99418300  0.50000000
 7.32781700 10.86538300 47.25178300  0.50000000
 7.32781700 35.12298300 22.99418300  0.50000000
 7.32781700 35.12298300 47.25178300  0.50000000
31.58541700 10.86538300 22.99418300  0.50000000
31.58541700 10.86538300 47.25178300  0.50000000
31.58541700 35.12298300 22.99418300  0.50000000
31.58541700 35.12298300 47.25178300  0.50000000
10.86538300  7.32781700 22.99418300  0.50000000
10.86538300  7.32781700 47.25178300  0.50000000
10.86538300 31.58541700 22.99418300  0.50000000
10.86538300 31.58541700 47.25178300  0.50000000
35.12298300  7.32781700 22.99418300  0.50000000
35.12298300  7.32781700 47.25178300  0.50000000
35.12298300 31.58541700 22.99418300  0.50000000
35.12298300 31.58541700 47.25178300  0.50000000
 4.80098300  1.26341700  1.26341700  0.50000000
 4.80098300  1.26341700 25.52101700  0.50000000
 4.80098300 25.52101700  1.26341700  0.50000000
 4.80098300 25.52101700 25.52101700  0.50000000
29.05858300  1.26341700  1.26341700  0.50000000
29.05858300  1.26341700 25.52101700  0.50000000
29.05858300 25.52101700  1.26341700  0.50000000
29.05858300 25.52101700 25.52101700  0.50000000
 4.80098300  4.80098300  4.80098300  0.50000000
 4.80098300  4.80098300 29.05858300  0.50000000
 4.80098300 29.05858300  4.80098300  0.50000000
 4.80098300 29.05858300 29.05858300  0.50000000
29.05858300  4.80098300  4.80098300  0.50000000
29.05858300  4.80098300 29.05858300  0.50000000
29.05858300 29.05858300  4.80098300  0.50000000
29.05858300 29.05858300 29.05858300  0.50000000
 1.26341700  1.26341700  4.80098300  0.50000000
 1.26341700  1.26341700 29.05858300  0.50000000
 1.26341700 25.52101700  4.80098300  0.50000000
 1.26341700 25.52101700 29.05858300  0.50000000
25.52101700  1.26341700  4.80098300  0.50000000
25.52101700  1.26341700 29.05858300  0.50000000
25.52101700 25.52101700  4.80098300  0.50000000
25.52101700 25.52101700 29.05858300  0.50000000
 1.26341700  4.80098300  1.26341700  0.50000000
 1.26341700  4.80098300 25.52101700  0.50000000
 1.26341700 29.05858300  1.26341700  0.50000000
 1.26341700 29.05858300 25.52101700  0.50000000
25.52101700  4.80098300  1.26341700  0.50000000
25.52101700  4.80098300 25.52101700  0.50000000
25.52101700 29.05858300  1.26341700  0.50000000
25.52101700 29.05858300 25.52101700  0.50000000
 4.80098300 13.39221700 13.39221700  0.50000000
 4.80098300 13.39221700 37.64981700  0.50000000
 4.80098300 37.64981700 13.39221700  0.50000000
 4.80098300 37.64981700 37.64981700  0.50000000
29.05858300 13.39221700 13.39221700  0.50000000
29.05858300 13.39221700 37.64981700  0.50000000
29.05858300 37.64981700 13.39221700  0.50000000
29.05858300 37.64981700 37.64981700  0.50000000
 4.80098300 16.92978300 16.92978300  0.50000000
 4.80098300 16.92978300 41.18738300  0.50000000
 4.80098300 41.18738300 16.92978300  0.50000000
 4.80098300 41.18738300 41.18738300  0.50000000
29.05858300 16.92978300 16.92978300  0.50000000
29.05858300 16.92978300 41.18738300  0.50000000
29.05858300 41.18738300 16.92978300  0.50000000
29.05858300 41.18738300 41.18738300  0.50000000
 1.26341700 13.39221700 16.92978300  0.50000000
 1.26341700 13.39221700 41.18738300  0.50000000
 1.26341700 37.64981700 16.92978300  0.50000000
 1.26341700 37.64981700 41.18738300  0.50000000
25.52101700 13.39221700 16.92978300  0.50000000
25.52101700 13.39221700 41.18738300  0.50000000
25.52101700 37.64981700 16.92978300  0.50000000
25.52101700 37.64981700 41.18738300  0.50000000
 1.26341700 16.92978300 13.39221700  0.50000000
 1.26341700 16.92978300 37.64981700  0.50000000
 1.26341700 41.18738300 13.39221700  0.50000000
 1.26341700 41.18738300 37.64981700  0.50000000
25.52101700 16.92978300 13.39221700  0.50000000
25.52101700 16.92978300 37.64981700  0.50000000
25.52101700 41.18738300 13.39221700  0.50000000
25.52101700 41.18738300 37.64981700  0.50000000
19.45661700  7.32781700  7.32781700  0.50000000
19.45661700  7.32781700 31.58541700  0.50000000
19.45661700 31.58541700  7.32781700  0.50000000
19.45661700 31.58541700 31.58541700  0.50000000
43.71421700  7.32781700  7.32781700  0.50000000
43.71421700  7.32781700 31.58541700  0.50000000
43.71421700 31.58541700  7.32781700  0.50000000
43.71421700 31.58541700 31.58541700  0.50000000
19.45661700 10.86538300 10.86538300  0.50000000
19.45661700 10.86538300 35.12298300  0.50000000
19.45661700 35.12298300 10.86538300  0.50000000
19.45661700 35.12298300 35.12298300  0.50000000
43.71421700 10.86538300 10.86538300  0.50000000
43.71421700 10.86538300 35.12298300  0.50000000
43.71421700 35.12298300 10.86538300  0.50000000
43.71421700 35.12298300 35.12298300  0.50000000
22.99418300  7.32781700 10.86538300  0.50000000
22.99418300  7.32781700 35.12298300  0.50000000
22.99418300 31.58541700 10.86538300  0.50000000
22.99418300 31.58541700 35.12298300  0.50000000
47.25178300  7.32781700 10.86538300  0.50000000
47.25178300  7.32781700 35.12298300  0.50000000
47.25178300 31.58541700 10.86538300  0.50000000
47.25178300 31.58541700 35.12298300  0.50000000
22.99418300 10.86538300  7.32781700  0.50000000
22.99418300 10.86538300 31.58541700  0.50000000
22.99418300 35.12298300  7.32781700  0.50000000
22.99418300 35.12298300 31.58541700  0.50000000
47.25178300 10.86538300  7.32781700  0.50000000
47.25178300 10.86538300 31.58541700  0.50000000
47.25178300 35.12298300  7.32781700  0.50000000
47.25178300 35.12298300 31.58541700  0.50000000
13.39221700 13.39221700  4.80098300  0.50000000
13.39221700 13.39221700 29.05858300  0.50000000
13.39221700 37.64981700  4.80098300  0.50000000
13.39221700 37.64981700 29.05858300  0.50000000
37.64981700 13.39221700  4.80098300  0.50000000
37.64981700 13.39221700 29.05858300  0.50000000
37.64981700 37.64981700  4.80098300  0.50000000
37.64981700 37.64981700 29.05858300  0.50000000
16.92978300 16.92978300  4.80098300  0.50000000
16.92978300 16.92978300 29.05858300  0.50000000
16.92978300 41.18738300  4.80098300  0.50000000
16.92978300 41.18738300 29.05858300  0.50000000
41.18738300 16.92978300  4.80098300  0.50000000
41.18738300 16.92978300 29.05858300  0.50000000
41.18738300 41.18738300  4.80098300  0.50000000
41.18738300 41.18738300 29.05858300  0.50000000
13.39221700 16.92978300  1.26341700  0.50000000
13.39221700 16.92978300 25.52101700  0.50000000
13.39221700 41.18738300  1.26341700  0.50000000
13.39221700 41.18738300 25.52101700  0.50000000
37.64981700 16.92978300  1.26341700  0.50000000
37.64981700 16.92978300 25.52101700  0.50000000
37.64981700 41.18738300  1.26341700  0.50000000
37.64981700 41.18738300 25.52101700  0.50000000
16.92978300 13.39221700  1.26341700  0.50000000
16.92978300 13.39221700 25.52101700  0.50000000
16.92978300 37.64981700  1.26341700  0.50000000
16.92978300 37.64981700 25.52101700  0.50000000
41.18738300 13.39221700  1.26341700  0.50000000
41.18738300 13.39221700 25.52101700  0.50000000
41.18738300 37.64981700  1.26341700  0.50000000
41.18738300 37.64981700 25.52101700  0.50000000
16.92978300  4.80098300 16.92978300  0.50000000
16.92978300  4.80098300 41.18738300  0.50000000
16.92978300 29.05858300 16.92978300  0.50000000
16.92978300 29.05858300 41.18738300  0.50000000
41.18738300  4.80098300 16.92978300  0.50000000
41.18738300  4.80098300 41.18738300  0.50000000
41.18738300 29.05858300 16.92978300  0.50000000
41.18738300 29.05858300 41.18738300  0.50000000
13.39221700  4.80098300 13.39221700  0.50000000
13.39221700  4.80098300 37.64981700  0.50000000
13.39221700 29.05858300 13.39221700  0.50000000
13.39221700 29.05858300 37.64981700  0.50000000
37.64981700  4.80098300 13.39221700  0.50000000
37.64981700  4.80098300 37.64981700  0.50000000
37.64981700 29.05858300 13.39221700  0.50000000
37.64981700 29.05858300 37.64981700  0.50000000
13.39221700  1.26341700 16.92978300  0.50000000
13.39221700  1.26341700 41.18738300  0.50000000
13.39221700 25.52101700 16.92978300  0.50000000
13.39221700 25.52101700 41.18738300  0.50000000
37.64981700  1.26341700 16.92978300  0.50000000
37.64981700  1.26341700 41.18738300  0.50000000
37.64981700 25.52101700 16.92978300  0.50000000
37.64981700 25.52101700 41.18738300  0.50000000
16.92978300  1.26341700 13.39221700  0.50000000
16.92978300  1.26341700 37.64981700  0.50000000
16.92978300 25.52101700 13.39221700  0.50000000
16.92978300 25.52101700 37.64981700  0.50000000
41.18738300  1.26341700 13.39221700  0.50000000
41.18738300  1.26341700 37.64981700  0.50000000
41.18738300 25.52101700 13.39221700  0.50000000
41.18738300 25.52101700 37.64981700  0.50000000
 7.32781700 19.45661700  7.32781700  0.50000000
 7.32781700 19.45661700 31.58541700  0.50000000
 7.32781700 43.71421700  7.32781700  0.50000000
 7.32781700 43.71421700 31.58541700  0.50000000
31.58541700 19.45661700  7.32781700  0.50000000
31.58541700 19.45661700 31.58541700  0.50000000
31.58541700 43.71421700  7.32781700  0.50000000
31.58541700 43.71421700 31.58541700  0.50000000
10.86538300 19.45661700 10.86538300  0.50000000
10.86538300 19.45661700 35.12298300  0.50000000
10.86538300 43.71421700 10.86538300  0.50000000
10.86538300 43.71421700 35.12298300  0.50000000
35.12298300 19.45661700 10.86538300  0.50000000
35.12298300 19.45661700 35.12298300  0.50000000
35.12298300 43.71421700 10.86538300  0.50000000
35.12298300 43.71421700 35.12298300  0.50000000
 7.32781700 22.99418300 10.86538300  0.50000000
 7.32781700 22.99418300 35.12298300  0.50000000
 7.32781700 47.25178300 10.86538300  0.50000000
 7.32781700 47.25178300 35.12298300  0.50000000
31.58541700 22.99418300 10.86538300  0.50000000
31.58541700 22.99418300 35.12298300  0.50000000
31.58541700 47.25178300 10.86538300  0.50000000
31.58541700 47.25178300 35.12298300  0.50000000
10.86538300 22.99418300  7.32781700  0.50000000
10.86538300 22.99418300 31.58541700  0.50000000
10.86538300 47.25178300  7.32781700  0.50000000
10.86538300 47.25178300 31.58541700  0.50000000
35.12298300 22.99418300  7.32781700  0.50000000
35.12298300 22.99418300 31.58541700  0.50000000
35.12298300 47.25178300  7.32781700  0.50000000
35.12298300 47.25178300 31.58541700  0.50000000
