 9.09660000 21.22540000  9.09660000  3.00000000
21.22540000 21.22540000 21.22540000  3.00000000
 9.09660000  9.09660000 21.22540000  3.00000000
21.22540000  9.09660000  9.09660000  3.00000000
15.16100000  3.03220000 15.16100000  3.00000000
 3.03220000  3.03220000  3.03220000  3.00000000
15.16100000 15.16100000  3.03220000  3.00000000
 3.03220000 15.16100000 15.16100000  3.00000000
 0.00000000  0.00000000  0.00000000  1.00000000
 6.06440000  6.06440000  0.00000000  1.00000000
12.12880000 12.12880000  0.00000000  1.00000000
18.19320000 18.19320000  0.00000000  1.00000000
 6.06440000  0.00000000  6.06440000  1.00000000
12.12880000  0.00000000 12.12880000  1.00000000
18.19320000  0.00000000 18.19320000  1.00000000
 0.00000000  6.06440000  6.06440000  1.00000000
 0.00000000 12.12880000 12.12880000  1.00000000
 0.00000000 18.19320000 18.19320000  1.00000000
12.12880000  6.06440000 18.19320000  1.00000000
12.12880000 18.19320000  6.06440000  1.00000000
18.19320000 12.12880000  6.06440000  1.00000000
 6.06440000 12.12880000 18.19320000  1.00000000
 6.06440000 18.19320000 12.12880000  1.00000000
18.19320000  6.06440000 12.12880000  1.00000000
22.99418300 22.99418300 19.45661700  0.50000000
19.45661700 19.45661700 19.45661700  0.50000000
19.45661700 22.99418300 22.99418300  0.50000000
22.99418300 19.45661700 22.99418300  0.50000000
10.86538300 10.86538300 19.45661700  0.50000000
 7.32781700  7.32781700 19.45661700  0.50000000
 7.32781700 10.86538300 22.99418300  0.50000000
10.86538300  7.32781700 22.99418300  0.50000000
 4.80098300  1.26341700  1.26341700  0.50000000
 4.80098300  4.80098300  4.80098300  0.50000000
 1.26341700  1.26341700  4.80098300  0.50000000
 1.26341700  4.80098300  1.26341700  0.50000000
 4.80098300 13.39221700 13.39221700  0.50000000
 4.80098300 16.92978300 16.92978300  0.50000000
 1.26341700 13.39221700 16.92978300  0.50000000
 1.26341700 16.92978300 13.39221700  0.50000000
19.45661700  7.32781700  7.32781700  0.50000000
19.45661700 10.86538300 10.86538300  0.50000000
22.99418300  7.32781700 10.86538300  0.50000000
22.99418300 10.86538300  7.32781700  0.50000000
13.39221700 13.39221700  4.80098300  0.50000000
16.92978300 16.92978300  4.80098300  0.50000000
13.39221700 16.92978300  1.26341700  0.50000000
16.92978300 13.39221700  1.26341700  0.50000000
16.92978300  4.80098300 16.92978300  0.50000000
13.39221700  4.80098300 13.39221700  0.50000000
13.39221700  1.26341700 16.92978300  0.50000000
16.92978300  1.26341700 13.39221700  0.50000000
 7.32781700 19.45661700  7.32781700  0.50000000
10.86538300 19.45661700 10.86538300  0.50000000
 7.32781700 22.99418300 10.86538300  0.50000000
10.86538300 22.99418300  7.32781700  0.50000000
